# .PCD v0.7 - Point Cloud Data file format
VERSION 0.7
FIELDS x y z rgba
SIZE 4 4 4 4
TYPE F F F U
COUNT 1 1 1 1
WIDTH 1148
HEIGHT 1
VIEWPOINT 0 0 0 1 0 0 0
POINTS 1148
DATA ascii
138.70277 6.261075 55.234333 4294967295
138.82556 8.6925688 54.881344 4294967295
139.78455 -5.9634051 -106.56349 4294967295
140.17412 -8.6012726 -156.4407 4294967295
142.27261 -31.30934 -465.05792 4294967295
142.62973 -30.491871 -495.28683 4294967295
143.08502 -27.334044 -523.68091 4294967295
143.75522 -27.142372 -586.58618 4294967295
141.74219 12.969662 -203.44719 4294967295
141.84662 22.04402 -169.86725 4294967295
142.09488 23.93329 -184.31477 4294967295
142.00447 29.92878 -146.91397 4294967295
142.11636 33.364532 -140.93694 4294967295
142.27788 36.231098 -142.3611 4294967295
142.4424 41.306347 -133.34038 4294967295
142.65131 43.729851 -141.28658 4294967295
142.67921 47.768707 -124.3007 4294967295
143.04387 48.964008 -152.80997 4294967295
143.12318 54.582188 -132.87498 4294967295
143.30281 57.339012 -136.2774 4294967295
143.96803 61.0961 -180.29134 4294967295
143.82788 65.832115 -143.86859 4294967295
144.05301 68.440765 -152.11443 4294967295
144.01761 74.16198 -120.54594 4294967295
144.11546 77.297844 -114.17503 4294967295
144.11234 80.780861 -96.598976 4294967295
144.22073 83.766602 -91.883194 4294967295
144.35773 86.634132 -90.393806 4294967295
144.54611 90.964584 -86.352539 4294967295
144.68782 93.794701 -85.399651 4294967295
144.91817 97.996826 -85.780067 4294967295
145.0614 100.81678 -84.929329 4294967295
145.21904 103.61359 -85.502357 4294967295
145.37296 106.41757 -85.656677 4294967295
145.53326 109.21778 -86.391937 4294967295
145.70563 112.01634 -88.223045 4294967295
145.88933 114.82219 -91.033066 4294967295
146.06383 117.64263 -92.878914 4294967295
146.22638 120.46944 -93.540436 4294967295
146.38898 123.29958 -94.150826 4294967295
146.54369 126.12688 -94.006897 4294967295
146.69484 128.94994 -93.516975 4294967295
146.83739 131.76021 -92.252815 4294967295
146.96999 134.55032 -90.134407 4294967295
147.10822 137.33885 -88.508972 4294967295
147.26088 140.14528 -88.100586 4294967295
147.41151 142.94537 -87.501907 4294967295
147.56706 145.75316 -87.290451 4294967295
147.72812 148.57249 -87.49369 4294967295
147.87633 151.35948 -86.632637 4294967295
148.0452 154.19875 -87.395729 4294967295
148.18808 156.9651 -86.074966 4294967295
148.36343 159.82521 -87.261322 4294967295
148.52078 162.63148 -87.017563 4294967295
148.68446 165.4577 -87.225227 4294967295
148.83284 168.22948 -86.254547 4294967295
149.00368 171.08037 -86.934441 4294967295
149.1618 173.88405 -86.641251 4294967295
149.30804 176.63811 -85.468605 4294967295
149.47948 179.49179 -86.090187 4294967295
149.63628 182.28404 -85.634598 4294967295
149.79875 185.09921 -85.559479 4294967295
149.99605 188.07292 -87.861626 4294967295
150.58437 194.98343 -105.3373 4294967295
151.34798 201.87424 -139.35718 4294967295
151.54442 209.01958 -118.23212 4294967295
151.70877 211.89439 -117.73731 4294967295
151.88455 214.8311 -117.95083 4294967295
152.03633 217.62997 -116.63193 4294967295
152.19986 220.49211 -116.04102 4294967295
152.3609 223.3369 -115.28801 4294967295
152.52422 226.19174 -114.65981 4294967295
152.69289 229.07684 -114.34466 4294967295
152.86299 231.96909 -114.09732 4294967295
153.03688 234.88406 -114.05742 4294967295
153.21474 237.82339 -114.22471 4294967295
153.38393 240.70605 -113.86802 4294967295
153.56181 243.64445 -113.9935 4294967295
153.7384 246.57416 -114.02502 4294967295
153.91148 249.47887 -113.83361 4294967295
154.08971 252.41805 -113.91395 4294967295
154.26266 255.32007 -113.68285 4294967295
154.43843 258.24048 -113.58843 4294967295
154.60915 261.12384 -113.20274 4294967295
154.77963 264.0036 -112.79186 4294967295
154.95224 266.89737 -112.48513 4294967295
138.93109 -12.598811 62.662758 4294967295
139.09229 -11.346786 53.938431 4294967295
139.44719 -12.267949 19.538137 4294967295
139.3576 -4.253212 60.528759 4294967295
139.53345 -0.47766 61.119759 4294967295
139.64856 9.5800657 93.162933 4294967295
139.90529 9.0943937 69.183144 4294967295
140.10039 10.05571 56.534966 4294967295
141.133 -4.3820119 -91.989418 4294967295
141.78577 -10.595562 -173.65607 4294967295
142.01147 -5.9428549 -173.33736 4294967295
144.32707 -33.620903 -486.47485 4294967295
144.76567 -33.324673 -522.44037 4294967295
145.06642 -30.754591 -537.09058 4294967295
145.15723 -25.223433 -521.40607 4294967295
145.84232 -24.062428 -574.42505 4294967295
143.17404 14.4561 -185.6888 4294967295
142.87126 22.776897 -124.79021 4294967295
143.35637 22.054089 -168.75999 4294967295
143.54831 27.02338 -163.73196 4294967295
143.51782 31.819454 -140.67299 4294967295
143.67885 34.700756 -141.87019 4294967295
143.79149 38.009087 -137.13823 4294967295
143.95125 40.898979 -138.12741 4294967295
144.08586 43.991463 -136.10172 4294967295
144.10881 47.883362 -121.24227 4294967295
144.54059 50.876614 -144.4391 4294967295
144.56905 54.635544 -130.53101 4294967295
144.77077 57.279476 -135.90685 4294967295
145.50641 60.965813 -181.27016 4294967295
145.2661 65.95694 -139.41557 4294967295
145.45752 70.565239 -135.18687 4294967295
145.42323 74.258751 -116.10107 4294967295
145.67838 83.549858 -96.345444 4294967295
145.78995 86.495224 -92.568848 4294967295
145.91968 89.373703 -90.566238 4294967295
146.01961 92.305862 -85.816078 4294967295
146.2735 96.467758 -88.321777 4294967295
146.41026 99.304092 -86.978218 4294967295
146.56094 102.11545 -86.865227 4294967295
146.71584 104.922 -87.093948 4294967295
146.87621 107.72578 -87.75351 4294967295
147.02899 110.53733 -87.718445 4294967295
147.19762 113.34373 -88.989487 4294967295
147.36089 116.15742 -89.745956 4294967295
147.54768 118.97803 -92.396164 4294967295
147.73747 121.81332 -95.191551 4294967295
147.9041 124.65013 -96.022049 4294967295
148.04276 127.47003 -94.576881 4294967295
148.20172 130.3019 -94.733398 4294967295
148.35458 133.1273 -94.377022 4294967295
148.49808 135.93823 -93.277008 4294967295
148.64594 138.75027 -92.50322 4294967295
148.78874 141.54971 -91.335304 4294967295
148.94127 144.36165 -90.886734 4294967295
149.09135 147.16605 -90.235008 4294967295
149.24889 149.98367 -90.110229 4294967295
149.39192 152.7657 -88.915054 4294967295
149.56306 155.61368 -89.717941 4294967295
149.73288 158.4612 -90.379951 4294967295
149.90897 161.32925 -91.438072 4294967295
150.07224 164.1626 -91.557816 4294967295
150.21007 166.91545 -89.912964 4294967295
150.38602 169.78719 -90.849556 4294967295
150.54738 172.61186 -90.763367 4294967295
150.71008 175.44038 -90.738731 4294967295
150.87903 178.29158 -91.0961 4294967295
151.1344 182.57784 -91.697739 4294967295
151.16362 184.86278 -83.041496 4294967295
151.28249 187.48866 -80.202065 4294967295
151.51353 190.58755 -84.422462 4294967295
153.12114 200.94839 -168.44925 4294967295
152.61725 202.95528 -116.25472 4294967295
152.30853 203.53329 -87.447128 4294967295
153.24236 211.2188 -127.88191 4294967295
153.42899 215.24817 -123.52843 4294967295
153.61212 218.2314 -124.05947 4294967295
153.72389 220.83032 -120.46594 4294967295
153.88654 223.69588 -119.80507 4294967295
154.0428 226.52264 -118.77483 4294967295
154.19724 229.33475 -117.63803 4294967295
154.35585 232.1665 -116.73123 4294967295
154.53397 235.10938 -116.88606 4294967295
154.70723 238.02328 -116.75534 4294967295
154.88008 240.93356 -116.58307 4294967295
155.05276 243.84167 -116.3847 4294967295
155.22884 246.76965 -116.34788 4294967295
155.39856 249.65681 -115.96043 4294967295
155.57507 252.58583 -115.91366 4294967295
155.74583 255.47656 -115.551 4294967295
155.91637 258.36426 -115.1652 4294967295
156.08752 261.25443 -114.79964 4294967295
156.2551 264.11862 -114.24139 4294967295
156.42656 267.00745 -113.87068 4294967295
140.23456 -12.059923 58.187592 4294967295
140.36121 -9.7537584 56.937469 4294967295
140.49495 -7.5816841 54.66103 4294967295
140.48018 -2.3760951 75.170021 4294967295
140.54726 3.336679 91.278687 4294967295
140.83041 7.1763539 83.803345 4294967295
140.71744 13.454179 115.97626 4294967295
141.3774 9.1151381 49.031105 4294967295
142.16054 3.869077 -30.72051 4294967295
143.52495 -5.856689 -171.76573 4294967295
145.97006 -33.036484 -461.1749 4294967295
144.69228 -10.635943 -278.97891 4294967295
147.05409 -30.640469 -534.81683 4294967295
147.0177 -20.841078 -494.85727 4294967295
144.90808 12.402104 -207.95088 4294967295
144.3808 22.207216 -130.50627 4294967295
144.99014 20.890085 -181.76431 4294967295
145.43541 21.416601 -213.49818 4294967295
144.92546 30.220587 -141.10323 4294967295
145.07976 33.165333 -141.45935 4294967295
145.22598 36.17514 -140.92619 4294967295
145.30977 39.634098 -133.90994 4294967295
145.5153 42.207745 -139.4823 4294967295
145.61911 45.483742 -134.62355 4294967295
145.88466 49.679306 -138.35089 4294967295
146.01819 52.744316 -136.47466 4294967295
146.18883 55.600296 -138.17754 4294967295
145.86461 62.713013 -85.960472 4294967295
146.57977 64.767845 -131.65395 4294967295
146.73529 69.464127 -124.8409 4294967295
146.8909 72.37043 -125.04334 4294967295
146.94847 78.974335 -103.1941 4294967295
147.09242 81.850967 -102.54779 4294967295
147.18987 84.843918 -97.921097 4294967295
147.34039 87.686501 -97.841957 4294967295
147.3857 90.747345 -88.976532 4294967295
147.54747 93.543434 -89.866608 4294967295
147.76546 97.784233 -89.102699 4294967295
147.94135 100.56971 -91.013603 4294967295
148.14601 104.82263 -89.093575 4294967295
148.27809 107.65238 -87.471794 4294967295
148.43481 110.46118 -87.74736 4294967295
148.62889 113.26071 -90.822456 4294967295
148.77719 116.08063 -90.36734 4294967295
148.93248 118.89888 -90.403519 4294967295
149.10107 121.72131 -91.392433 4294967295
149.28046 124.55402 -93.111862 4294967295
149.45653 127.3932 -94.529083 4294967295
149.61452 130.22386 -94.600006 4294967295
149.77312 133.05533 -94.678947 4294967295
149.93306 135.88867 -94.824692 4294967295
150.09807 138.72951 -95.287888 4294967295
150.24933 141.5511 -94.77195 4294967295
150.39388 144.35852 -93.782944 4294967295
150.53459 147.15384 -92.529373 4294967295
150.71936 150.03218 -94.196198 4294967295
150.81763 152.7296 -90.119843 4294967295
150.99387 155.58943 -91.1661 4294967295
151.1925 158.50912 -93.608727 4294967295
151.37604 161.39996 -95.015106 4294967295
151.54434 164.25446 -95.403091 4294967295
151.67831 167.01067 -93.609215 4294967295
151.84225 169.8497 -93.681183 4294967295
152.02815 172.75841 -95.07618 4294967295
152.23767 175.75056 -97.854317 4294967295
152.41328 178.6376 -98.510948 4294967295
152.46231 181.07623 -91.569839 4294967295
152.57588 183.72321 -88.548698 4294967295
152.6938 188.54962 -76.249123 4294967295
154.13695 197.66322 -144.95711 4294967295
152.55215 194.23915 -40.403721 4294967295
154.04176 202.78308 -115.05496 4294967295
154.7076 210.08444 -132.86743 4294967295
155.39883 215.47356 -161.09496 4294967295
155.18088 216.59203 -139.54471 4294967295
155.69037 222.27182 -152.61342 4294967295
155.46465 224.26143 -126.46141 4294967295
155.70752 228.57162 -125.35938 4294967295
155.85226 231.34924 -123.7262 4294967295
155.99545 234.11194 -122.0196 4294967295
156.13684 236.85815 -120.22881 4294967295
156.31311 239.79385 -120.20752 4294967295
156.48407 242.69858 -119.90079 4294967295
156.65485 245.60103 -119.57276 4294967295
156.82054 248.47165 -118.97881 4294967295
156.98967 251.36055 -118.54502 4294967295
157.16048 254.25755 -118.1797 4294967295
157.32503 257.1145 -117.50207 4294967295
157.48997 259.97153 -116.8381 4294967295
157.65518 262.82736 -116.17789 4294967295
157.82175 265.68964 -115.57704 4294967295
141.3909 -15.618592 51.135242 4294967295
141.46655 -12.300798 56.943962 4294967295
141.58292 -9.7781744 57.237377 4294967295
141.64496 -1.861663 79.531609 4294967295
141.38565 8.6750183 133.24518 4294967295
141.79082 10.459601 110.94067 4294967295
142.52553 8.1229 51.730366 4294967295
143.07703 7.0470009 9.642746 4294967295
143.62119 4.431963 -37.137539 4294967295
144.10806 2.9023349 -76.213066 4294967295
145.24619 -1.00559 -168.60027 4294967295
149.33347 -33.568451 -563.61041 4294967295
149.29893 -18.270948 -508.5293 4294967295
147.37367 6.843626 -288.75455 4294967295
146.65254 19.771505 -194.19943 4294967295
146.38696 28.225319 -146.51248 4294967295
146.4713 31.6936 -140.22684 4294967295
146.62885 34.615173 -140.86133 4294967295
146.71056 38.037731 -134.50015 4294967295
146.91742 40.639389 -139.58327 4294967295
147.04895 43.72113 -137.78362 4294967295
147.17116 46.843544 -135.17249 4294967295
147.32869 49.762199 -135.67076 4294967295
147.52267 52.50243 -139.26859 4294967295
147.7668 55.03019 -147.0256 4294967295
147.45447 61.840126 -101.45042 4294967295
147.57301 64.81749 -98.945625 4294967295
148.08035 66.310997 -128.28593 4294967295
148.27095 70.831482 -125.10814 4294967295
148.55467 73.336334 -135.47856 4294967295
148.40985 78.800842 -105.9017 4294967295
148.52824 81.748375 -103.32156 4294967295
148.63704 84.70327 -100.03008 4294967295
148.93135 88.839714 -105.05653 4294967295
148.83914 92.131577 -86.769058 4294967295
148.98892 94.943062 -86.695839 4294967295
149.41826 98.905716 -101.40288 4294967295
149.54187 104.75634 -88.269028 4294967295
149.72342 107.55058 -90.29303 4294967295
149.8369 110.38686 -87.502876 4294967295
150.01956 113.18965 -89.516464 4294967295
150.21184 116.00233 -92.118912 4294967295
150.35431 118.82398 -91.269737 4294967295
150.508 121.64423 -91.163979 4294967295
150.68376 124.47366 -92.495209 4294967295
150.85706 127.30829 -93.612564 4294967295
151.02686 130.14572 -94.450882 4294967295
151.18561 132.97688 -94.536392 4294967295
151.36246 135.82823 -95.749641 4294967295
151.54776 138.69597 -97.446091 4294967295
151.65752 141.46523 -94.348152 4294967295
151.8271 144.31277 -94.997993 4294967295
151.96461 147.10829 -93.632568 4294967295
152.30322 152.80647 -94.744278 4294967295
152.48338 155.68231 -95.898392 4294967295
152.69633 158.6378 -98.952156 4294967295
152.87604 161.52667 -99.970032 4294967295
153.03142 164.35791 -99.525261 4294967295
153.19949 167.22076 -99.796555 4294967295
153.35046 170.03662 -99.060303 4294967295
153.5623 173.02716 -101.76801 4294967295
154.44659 179.3002 -137.47766 4294967295
153.87039 179.83582 -95.916023 4294967295
154.06804 182.79082 -97.705925 4294967295
154.28136 186.94299 -95.761742 4294967295
153.88464 189.90057 -56.697449 4294967295
153.71732 193.44952 -30.905451 4294967295
155.48584 202.70364 -115.03915 4294967295
155.92566 206.73325 -128.94652 4294967295
156.26237 210.37544 -137.30757 4294967295
156.53821 214.88191 -137.92116 4294967295
156.63951 217.51289 -134.13539 4294967295
157.34671 222.93745 -160.66316 4294967295
157.46169 225.66133 -157.39342 4294967295
157.26979 230.03546 -126.0459 4294967295
157.70728 235.33698 -134.30988 4294967295
157.76941 238.71965 -124.51376 4294967295
157.9841 241.86583 -126.24933 4294967295
158.10843 244.52994 -123.71529 4294967295
158.26758 247.37567 -122.81742 4294967295
158.43121 250.24271 -122.12125 4294967295
158.5894 253.07626 -121.1689 4294967295
158.74939 255.91641 -120.29477 4294967295
158.90521 258.72937 -119.2315 4294967295
159.07036 261.59296 -118.58191 4294967295
159.23538 264.45358 -117.92191 4294967295
159.39552 267.28201 -117.03918 4294967295
142.78815 -16.14604 39.106152 4294967295
142.89308 -13.371365 40.851009 4294967295
142.84378 -2.0047629 78.939049 4294967295
142.5793 7.6273499 125.58055 4294967295
143.17595 5.4547682 80.646973 4294967295
143.09355 10.356796 101.08218 4294967295
143.69724 8.7336578 57.466721 4294967295
143.76161 11.836501 62.992409 4294967295
144.52594 7.1476612 -0.34476101 4294967295
145.60605 -0.392735 -92.667229 4294967295
145.87178 3.342545 -97.921165 4294967295
146.0827 5.540411 -104.45728 4294967295
150.46272 -25.478905 -479.93307 4294967295
152.68626 -39.131069 -663.91571 4294967295
151.45831 -14.372369 -507.99261 4294967295
148.64809 14.300661 -239.41141 4294967295
147.79114 28.701588 -139.49541 4294967295
147.93877 31.685194 -139.29187 4294967295
148.11131 34.515491 -141.12524 4294967295
148.32112 40.967163 -133.65056 4294967295
148.50365 43.745972 -136.19887 4294967295
148.61945 46.877148 -133.38661 4294967295
148.76414 49.853058 -132.86481 4294967295
149.08635 52.02739 -146.06479 4294967295
149.4335 54.181671 -160.86731 4294967295
148.88814 63.439377 -96.494362 4294967295
149.70784 70.811974 -123.70429 4294967295
150.16519 72.855263 -145.61487 4294967295
149.89513 78.585037 -109.78426 4294967295
150.02101 81.518684 -107.94202 4294967295
150.32771 87.249626 -108.06281 4294967295
150.37045 91.851494 -95.359909 4294967295
151.54721 99.595985 -142.85437 4294967295
151.09224 106.04057 -92.644577 4294967295
151.24742 108.86407 -92.748024 4294967295
151.36156 111.70199 -90.211105 4294967295
151.52083 114.51889 -90.539841 4294967295
151.71486 117.33753 -93.002174 4294967295
151.86241 120.16149 -92.522285 4294967295
152.04202 122.9933 -93.990616 4294967295
152.22488 125.83415 -95.600685 4294967295
152.37369 128.66153 -95.108398 4294967295
152.56555 131.52019 -97.170181 4294967295
152.73666 134.36966 -97.939499 4294967295
152.89394 137.20784 -97.861511 4294967295
153.06654 140.06427 -98.648857 4294967295
153.26073 142.95398 -100.64304 4294967295
153.40009 145.77042 -99.442795 4294967295
153.54085 148.58322 -98.316971 4294967295
153.72566 151.46896 -99.663826 4294967295
153.92062 154.38026 -101.52911 4294967295
154.12645 157.32217 -103.93795 4294967295
154.33109 160.27251 -106.21868 4294967295
154.49071 163.12959 -105.98977 4294967295
154.6496 165.98357 -105.70141 4294967295
154.81076 168.84183 -105.51646 4294967295
154.97374 171.70378 -105.40638 4294967295
155.16978 174.65697 -107.01577 4294967295
155.9631 179.34776 -139.76653 4294967295
155.17981 179.4325 -90.295189 4294967295
155.58948 183.02974 -102.89674 4294967295
155.75134 187.0372 -98.397888 4294967295
155.75078 192.68965 -77.555565 4294967295
155.38443 193.54898 -51.312229 4294967295
156.18002 198.6718 -82.438782 4294967295
157.53224 207.21564 -135.90282 4294967295
157.8322 211.81032 -137.67067 4294967295
157.50018 213.75775 -109.39684 4294967295
157.82021 217.28899 -116.34086 4294967295
157.12674 217.42998 -71.935165 4294967295
158.15321 225.17555 -107.5994 4294967295
157.9671 227.42107 -87.26136 4294967295
159.4734 237.73099 -143.50267 4294967295
159.40623 239.51085 -132.42305 4294967295
160.49762 247.0441 -172.88585 4294967295
159.96626 246.47676 -141.27068 4294967295
159.96878 250.5817 -125.58594 4294967295
160.11659 253.37151 -124.20438 4294967295
160.27054 256.18921 -123.08761 4294967295
160.41472 258.94928 -121.55605 4294967295
160.57416 261.78845 -120.67333 4294967295
160.7366 264.64124 -119.9138 4294967295
160.88994 267.43945 -118.77135 4294967295
144.83841 -25.248308 -33.960266 4294967295
144.44673 -13.400463 22.693972 4294967295
143.45508 8.8758307 144.43512 4294967295
144.90353 3.1517501 42.610912 4294967295
144.90622 10.642295 63.819569 4294967295
146.84315 1.253745 -77.012596 4294967295
147.28542 3.374537 -96.890862 4294967295
147.66168 4.2116661 -116.55486 4294967295
147.33713 11.032648 -77.843231 4294967295
148.63605 4.5480542 -172.6828 4294967295
154.41478 -35.807957 -627.84656 4294967295
152.96378 -16.51219 -486.95343 4294967295
151.84248 -3.4142251 -383.30606 4294967295
149.42763 19.677359 -174.93771 4294967295
149.16187 27.337854 -137.00684 4294967295
149.3112 30.299772 -137.00914 4294967295
149.48891 33.101841 -139.1118 4294967295
149.62723 36.131336 -138.22453 4294967295
149.63475 39.828377 -127.73394 4294967295
149.88217 42.280281 -134.85043 4294967295
150.01883 45.296078 -133.83257 4294967295
150.18314 48.183205 -134.77885 4294967295
150.41216 50.805103 -140.24551 4294967295
150.77394 52.934742 -154.85704 4294967295
150.97556 55.758427 -158.07892 4294967295
151.21533 67.201889 -137.47552 4294967295
151.18051 70.682014 -124.91423 4294967295
151.4028 73.415947 -129.46324 4294967295
151.35182 76.836952 -116.09444 4294967295
151.5141 81.313713 -111.79375 4294967295
151.67438 84.176682 -112.27499 4294967295
151.90355 86.921745 -117.07147 4294967295
151.34845 90.929138 -72.67305 4294967295
151.26492 95.489403 -53.752712 4294967295
152.70462 96.742523 -132.94557 4294967295
152.98694 99.553749 -140.48904 4294967295
152.45706 103.05545 -98.999863 4294967295
152.58907 105.91069 -97.684174 4294967295
152.71103 108.76361 -95.773544 4294967295
152.8492 111.60122 -94.819466 4294967295
152.97583 114.43563 -93.186867 4294967295
153.15463 117.26118 -94.565178 4294967295
153.29475 120.08829 -93.682129 4294967295
153.48045 122.92423 -95.375679 4294967295
153.68674 125.77795 -98.174812 4294967295
153.85902 128.62601 -99.006355 4294967295
154.0573 131.49712 -101.23879 4294967295
154.21416 134.34354 -101.13806 4294967295
154.38466 137.20302 -101.7561 4294967295
154.55595 140.06635 -102.38385 4294967295
154.74512 142.95528 -103.93459 4294967295
154.94099 145.86105 -105.79504 4294967295
155.09113 148.7058 -105.19038 4294967295
155.23505 151.53714 -104.24395 4294967295
155.43323 154.46039 -106.10876 4294967295
155.64914 157.42595 -108.83443 4294967295
155.82034 160.31366 -109.20928 4294967295
155.99242 163.20482 -109.60002 4294967295
156.15141 166.06807 -109.30386 4294967295
156.30418 168.91489 -108.67706 4294967295
156.47389 171.80077 -108.87739 4294967295
156.67053 175.97716 -106.29094 4294967295
156.56323 179.28001 -88.977707 4294967295
157.32556 183.855 -117.7533 4294967295
156.42062 183.50745 -66.43187 4294967295
157.71239 189.81578 -120.01885 4294967295
158.44469 194.54541 -146.4624 4294967295
156.91313 191.84038 -66.704826 4294967295
157.21715 195.09828 -73.24102 4294967295
158.64624 203.51874 -127.49156 4294967295
159.0551 207.32179 -138.20445 4294967295
159.40483 212.1031 -142.07098 4294967295
159.59589 215.13889 -142.69179 4294967295
159.74628 218.0145 -141.47906 4294967295
158.67412 216.95569 -82.58419 4294967295
155.95966 207.61502 43.348827 4294967295
157.02188 214.03954 3.762857 4294967295
155.00467 207.95775 100.40234 4294967295
161.06677 238.14542 -148.11487 4294967295
161.44286 242.05864 -156.31139 4294967295
161.62987 248.3309 -145.00372 4294967295
161.43434 250.51755 -125.71384 4294967295
161.65407 253.67725 -127.32664 4294967295
161.79333 256.43173 -125.6424 4294967295
161.93486 259.19174 -124.05666 4294967295
162.08228 261.97681 -122.7116 4294967295
162.23643 264.79297 -121.63819 4294967295
162.38882 267.59567 -120.49453 4294967295
146.68742 -33.768848 -83.703659 4294967295
146.52539 -27.307703 -57.943218 4294967295
146.33635 -20.74498 -30.411705 4294967295
145.91994 -11.823251 15.803259 4294967295
144.94852 4.6185942 112.21732 4294967295
146.65948 -5.9008508 -9.2355719 4294967295
146.3143 1.41201 28.92717 4294967295
146.45767 3.7585621 27.2717 4294967295
146.35814 11.944519 54.365181 4294967295
147.56679 5.0077519 -30.010948 4294967295
147.81606 6.718164 -39.060902 4294967295
148.80841 4.5096278 -99.018852 4294967295
148.84749 8.1646147 -91.386009 4294967295
149.24982 11.05603 -105.52677 4294967295
151.2594 3.0980411 -236.07539 4294967295
149.66475 19.807217 -104.51881 4294967295
149.78494 22.833 -102.86261 4294967295
150.04108 25.036602 -110.77782 4294967295
149.88054 29.680634 -89.484665 4294967295
150.67175 28.956264 -134.27391 4294967295
150.86267 31.689156 -137.15321 4294967295
151.01134 34.654469 -137.08717 4294967295
151.06458 38.078014 -130.59196 4294967295
151.27069 40.758602 -134.36359 4294967295
151.44987 43.581638 -136.26767 4294967295
151.62465 46.435658 -137.825 4294967295
152.50092 50.202026 -174.62315 4294967295
152.25821 54.670815 -149.14255 4294967295
151.81757 59.643795 -111.57976 4294967295
152.14293 61.972328 -122.5842 4294967295
152.36345 66.357582 -122.16294 4294967295
152.76587 68.594925 -137.50926 4294967295
152.72908 72.02063 -125.88422 4294967295
152.9371 74.8106 -129.18135 4294967295
152.90125 81.33654 -108.75708 4294967295
153.0381 84.233704 -107.85411 4294967295
153.2439 87.013779 -110.96353 4294967295
152.62364 91.01638 -66.242699 4294967295
152.46213 95.615189 -44.377941 4294967295
153.75835 98.608498 -105.23837 4294967295
153.78079 101.5747 -97.863274 4294967295
153.87509 104.45266 -94.569214 4294967295
154.09277 107.24902 -98.099579 4294967295
154.2164 110.09911 -96.412148 4294967295
154.41481 112.92358 -98.78257 4294967295
154.54935 115.76568 -97.654808 4294967295
154.67923 118.60153 -96.273155 4294967295
154.82434 121.43328 -95.696037 4294967295
155.01674 124.27806 -97.58979 4294967295
155.17348 127.11563 -97.572212 4294967295
155.37912 129.98276 -100.06483 4294967295
155.56711 132.8494 -101.58652 4294967295
155.80702 135.76868 -105.71357 4294967295
155.98984 138.65166 -106.86483 4294967295
156.19243 141.56241 -108.96902 4294967295
156.35295 144.43111 -108.92157 4294967295
156.55641 147.35803 -110.97742 4294967295
156.73447 150.25713 -111.73287 4294967295
156.90237 153.14342 -111.95927 4294967295
157.08322 156.0529 -112.78678 4294967295
157.20807 158.86353 -110.88974 4294967295
157.37659 161.75003 -111.08034 4294967295
157.55263 164.6528 -111.60397 4294967295
157.7039 167.50412 -110.93259 4294967295
157.86552 170.37575 -110.73363 4294967295
158.04857 173.29732 -111.50861 4294967295
158.10353 175.90352 -106.3532 4294967295
157.47461 179.05577 -62.646725 4294967295
158.07561 183.04457 -82.500443 4294967295
157.60323 184.01407 -53.991615 4294967295
159.81795 192.8992 -145.35733 4294967295
159.59387 194.64804 -127.73678 4294967295
160.03893 202.032 -128.28777 4294967295
160.33818 205.401 -133.69469 4294967295
160.78949 210.50539 -141.73758 4294967295
161.04665 213.7769 -145.13274 4294967295
161.18031 216.60167 -143.26247 4294967295
161.10352 219.75391 -128.90607 4294967295
158.54004 211.89705 -15.407809 4294967295
157.44563 210.44783 39.257832 4294967295
162.68025 238.59286 -153.03871 4294967295
164.30348 250.26338 -202.94456 4294967295
163.416 249.61797 -156.73212 4294967295
163.1205 250.41972 -137.96179 4294967295
163.1281 253.64017 -127.67114 4294967295
163.33098 256.71295 -128.50552 4294967295
163.45537 259.40289 -126.31529 4294967295
163.58823 262.12714 -124.46117 4294967295
163.73964 264.93805 -123.31387 4294967295
163.88777 267.72818 -122.04532 4294967295
148.20013 -34.972046 -91.611794 4294967295
147.68042 -20.857475 -30.701967 4294967295
146.5218 -1.362825 76.10807 4294967295
147.49924 -5.3577809 16.338537 4294967295
147.80075 2.984977 21.3773 4294967295
147.40263 11.635478 62.962608 4294967295
148.92294 6.6369739 -26.799179 4294967295
149.82632 3.5606411 -80.370872 4294967295
150.12975 5.1960268 -91.734558 4294967295
150.29158 9.8073025 -88.48246 4294967295
150.71156 12.711553 -102.54197 4294967295
149.9883 26.281635 -31.889616 4294967295
151.04991 25.514738 -87.532143 4294967295
151.93285 26.246227 -130.31517 4294967295
152.16032 28.789799 -135.36075 4294967295
152.33438 31.62472 -136.94868 4294967295
152.46278 34.681297 -135.64684 4294967295
152.53065 37.997162 -130.60866 4294967295
152.69154 40.888401 -131.32256 4294967295
153.01434 43.133186 -141.82512 4294967295
153.2282 47.635143 -141.01134 4294967295
153.92862 50.448528 -168.98178 4294967295
153.86958 54.189915 -156.32542 4294967295
153.62225 58.436069 -132.87236 4294967295
153.73058 61.503078 -130.32959 4294967295
153.53212 65.395287 -110.20857 4294967295
154.33344 68.280388 -142.86888 4294967295
154.2153 71.875175 -127.49998 4294967295
154.36394 74.806488 -127.23235 4294967295
154.04819 78.658669 -101.22971 4294967295
154.33643 84.381081 -100.49889 4294967295
154.49211 87.221825 -100.73444 4294967295
154.36359 90.450188 -85.678123 4294967295
154.52452 94.734024 -82.258316 4294967295
154.93686 97.273521 -96.072472 4294967295
155.13943 100.06557 -98.683907 4294967295
155.35728 104.33431 -98.03643 4294967295
155.52731 107.16521 -98.85878 4294967295
155.65498 110.0153 -97.487152 4294967295
155.795 112.85551 -96.736443 4294967295
155.9832 115.688 -98.396248 4294967295
156.13707 118.52736 -98.295952 4294967295
156.25529 121.35963 -96.412537 4294967295
156.39662 124.18935 -95.667099 4294967295
156.60336 127.04398 -98.104416 4294967295
156.7926 129.90118 -99.637123 4294967295
156.9837 132.76738 -101.21555 4294967295
157.23996 135.69426 -105.86429 4294967295
157.49651 138.64462 -110.43785 4294967295
157.72842 141.59187 -113.76705 4294967295
157.97156 144.5685 -117.55164 4294967295
158.17563 147.51375 -119.44887 4294967295
158.35344 150.43153 -120.08408 4294967295
158.5312 153.35229 -120.68811 4294967295
158.6395 156.16382 -118.10159 4294967295
158.67979 158.84584 -112.4528 4294967295
158.85809 161.75334 -113.05799 4294967295
159.02953 164.65019 -113.32573 4294967295
159.17697 167.49937 -112.5079 4294967295
159.3437 170.38593 -112.5293 4294967295
159.53375 173.32471 -113.54847 4294967295
160.16846 177.30951 -133.83719 4294967295
159.07248 178.3595 -75.702225 4294967295
159.52026 181.88942 -87.876175 4294967295
158.92586 182.67834 -55.665329 4294967295
159.12683 185.53221 -57.372272 4294967295
160.97401 194.33362 -124.36028 4294967295
161.65486 202.43617 -134.59714 4294967295
161.91045 205.65363 -137.88371 4294967295
162.12981 208.76488 -139.64174 4294967295
162.40565 212.07565 -143.6331 4294967295
162.65521 215.31137 -146.50266 4294967295
162.71584 217.88426 -141.8054 4294967295
159.16435 209.24802 11.687818 4294967295
158.25343 207.75758 53.271439 4294967295
157.37202 206.21181 93.210754 4294967295
156.85225 205.94157 118.73001 4294967295
164.74815 242.00166 -171.26292 4294967295
164.09081 244.83727 -129.13261 4294967295
164.54826 250.11308 -136.06152 4294967295
164.03055 249.95012 -110.2196 4294967295
164.85741 256.90683 -130.67665 4294967295
164.98317 259.6196 -128.6178 4294967295
165.10269 262.29492 -126.34415 4294967295
165.24442 265.06891 -124.88332 4294967295
165.38423 267.82797 -123.35699 4294967295
149.0811 -21.503819 -34.883274 4294967295
148.59995 -13.105088 7.3030028 4294967295
148.75017 -7.0297828 13.929995 4294967295
148.88275 -4.5187159 13.311281 4294967295
149.2355 1.610894 10.473368 4294967295
149.05373 8.2762127 34.48991 4294967295
150.20836 5.0896802 -27.974037 4294967295
150.58452 6.0723448 -43.64072 4294967295
151.52222 3.392082 -94.53894 4294967295
151.64279 8.2570782 -88.974159 4294967295
151.75656 11.262344 -87.383553 4294967295
152.06689 13.085756 -97.878319 4294967295
152.13527 16.371922 -93.434967 4294967295
150.99072 28.028234 -11.738676 4294967295
152.31145 24.430244 -82.85804 4294967295
153.56989 23.487495 -144.7326 4294967295
153.55128 27.26787 -134.90005 4294967295
153.75592 29.967707 -138.17802 4294967295
153.88289 33.028065 -136.90305 4294967295
153.99648 36.136478 -134.85844 4294967295
153.95329 39.858582 -123.91742 4294967295
154.3213 41.941963 -136.30682 4294967295
154.50784 46.511364 -134.12248 4294967295
155.06956 48.068428 -156.86926 4294967295
155.42343 50.43309 -167.83707 4294967295
155.49458 53.724648 -163.20842 4294967295
155.25371 57.885208 -141.74187 4294967295
155.32742 61.063477 -137.46408 4294967295
156.22411 62.117336 -177.10757 4294967295
155.83336 68.154488 -143.90958 4294967295
155.74843 73.263397 -127.33121 4294967295
155.84061 76.301941 -124.15624 4294967295
155.46329 81.705101 -93.021469 4294967295
155.85069 85.705338 -101.26314 4294967295
155.90108 88.690414 -96.170143 4294967295
155.9545 91.643272 -91.279778 4294967295
156.14244 94.426064 -93.110497 4294967295
156.45737 97.101593 -101.15298 4294967295
156.62544 99.937347 -101.87627 4294967295
156.73444 102.81588 -99.694748 4294967295
156.95833 107.0839 -99.344856 4294967295
157.08185 109.93617 -97.860062 4294967295
157.21407 112.77882 -96.785378 4294967295
157.38089 115.61316 -97.336853 4294967295
157.54471 118.45026 -97.71579 4294967295
157.69196 121.28654 -97.300514 4294967295
157.77641 124.10236 -93.968254 4294967295
158.00427 126.95979 -97.23748 4294967295
158.17593 129.80435 -97.883034 4294967295
158.41579 132.69603 -101.58311 4294967295
158.5974 135.56227 -102.59643 4294967295
158.98631 138.61409 -112.83273 4294967295
159.25053 141.59445 -117.3805 4294967295
159.52301 144.60637 -122.2133 4294967295
159.72322 147.55521 -123.79636 4294967295
159.8999 150.481 -124.31686 4294967295
160.07672 153.40941 -124.81457 4294967295
160.18742 156.23981 -122.44694 4294967295
160.18169 158.87 -115.12131 4294967295
160.34663 161.7592 -115.10414 4294967295
160.51311 164.65115 -115.13321 4294967295
160.66052 167.50638 -114.34183 4294967295
160.84018 170.42308 -114.88354 4294967295
161.11322 173.53978 -119.25526 4294967295
161.42502 176.76245 -125.146 4294967295
160.76332 177.76654 -91.223755 4294967295
162.02895 183.24074 -135.8492 4294967295
161.54843 185.7943 -106.15707 4294967295
162.12572 189.74385 -122.4774 4294967295
162.49245 193.19408 -130.22345 4294967295
162.47261 195.59464 -122.6161 4294967295
163.21402 201.39529 -141.46849 4294967295
163.39336 204.37994 -141.59528 4294967295
163.59319 207.42873 -142.49326 4294967295
163.79948 210.50191 -143.6105 4294967295
164.06657 213.77852 -147.01352 4294967295
164.31721 217.01451 -149.73508 4294967295
164.15002 220.00497 -133.32729 4294967295
160.35318 208.86078 15.037486 4294967295
159.8185 208.92984 40.606136 4294967295
158.8459 207.27055 82.040314 4294967295
158.57773 209.00838 99.765701 4294967295
166.08154 241.17842 -164.4277 4294967295
166.0799 245.7719 -151.0677 4294967295
166.27313 248.83333 -151.39047 4294967295
166.29715 251.18242 -145.7052 4294967295
166.33588 254.67569 -137.36668 4294967295
166.51433 259.82336 -130.82138 4294967295
166.61607 262.43494 -128.01617 4294967295
166.74663 265.16833 -126.21836 4294967295
166.87531 267.88611 -124.36301 4294967295
150.80466 -30.87044 -71.690819 4294967295
149.87083 -18.566881 -3.315958 4294967295
149.83315 -12.691727 10.897944 4294967295
149.87244 -9.3976898 16.152769 4294967295
150.10255 -5.8870721 13.285568 4294967295
150.20372 -3.1265531 14.647969 4294967295
150.41795 -1.222042 9.0934687 4294967295
150.55374 4.7678952 15.896207 4294967295
150.75783 6.7963719 11.110863 4294967295
151.77795 5.2516232 -38.034267 4294967295
152.87798 1.859301 -94.747055 4294967295
153.73927 0.317197 -136.71388 4294967295
153.31543 8.5055323 -99.843246 4294967295
153.31456 12.175078 -91.764984 4294967295
153.63098 14.070955 -101.75441 4294967295
153.69763 17.339905 -97.538483 4294967295
153.68524 22.747028 -85.050507 4294967295
154.02164 24.640972 -95.869911 4294967295
155.02463 27.184248 -134.94183 4294967295
155.24379 29.839863 -138.78297 4294967295
155.34653 32.992924 -136.30655 4294967295
155.18562 37.155788 -119.81364 4294967295
155.32953 40.08033 -119.64253 4294967295
155.09787 44.339569 -99.74556 4294967295
155.41122 48.308456 -104.69849 4294967295
156.67476 47.655144 -162.29475 4294967295
156.95364 50.303123 -168.65181 4294967295
157.0446 55.251694 -161.39687 4294967295
156.80345 59.302414 -141.42862 4294967295
156.72253 67.744804 -118.42168 4294967295
157.29146 69.768417 -138.94356 4294967295
157.23792 73.125969 -128.78954 4294967295
157.30074 76.214317 -124.39085 4294967295
157.07901 79.752647 -106.33032 4294967295
157.70358 83.465782 -125.27387 4294967295
157.59587 89.790504 -105.63967 4294967295
157.65601 92.749268 -101.31261 4294967295
157.70552 95.694061 -96.527412 4294967295
157.82045 98.559708 -94.800201 4294967295
158.00522 102.83287 -92.779739 4294967295
158.12245 105.67552 -91.158607 4294967295
158.49583 109.8614 -97.603653 4294967295
158.64772 112.69939 -97.474144 4294967295
158.77339 115.53866 -96.162682 4294967295
158.87929 118.37022 -93.975815 4294967295
159.04176 121.19927 -94.273727 4294967295
159.15753 124.01717 -92.516632 4294967295
159.33968 126.85146 -93.632744 4294967295
159.58011 129.72034 -97.216263 4294967295
159.74028 132.55896 -97.310791 4294967295
160.04465 135.50082 -103.50063 4294967295
160.36043 138.48315 -110.07478 4294967295
160.74252 141.55983 -119.328 4294967295
161.01619 144.57082 -123.92876 4294967295
161.21559 147.52048 -125.38087 4294967295
161.39781 150.45599 -126.0859 4294967295
161.55418 153.36047 -125.70745 4294967295
161.67674 156.21458 -123.93917 4294967295
161.71053 158.92416 -118.58949 4294967295
161.8506 161.78105 -117.54869 4294967295
162.01126 164.66855 -117.32506 4294967295
162.16272 167.53806 -116.71696 4294967295
162.37372 170.51865 -118.44706 4294967295
162.82355 173.98593 -129.49242 4294967295
162.94456 176.8156 -127.5834 4294967295
163.02315 179.54355 -124.03484 4294967295
163.36681 182.85823 -130.71178 4294967295
163.45045 185.58888 -127.34192 4294967295
163.71385 188.74464 -130.83148 4294967295
163.94525 191.83495 -133.05144 4294967295
164.14201 194.84441 -133.92494 4294967295
164.30095 197.75543 -133.35727 4294967295
164.72462 201.40182 -142.61201 4294967295
164.94868 204.51627 -144.37003 4294967295
165.14586 207.55913 -145.10353 4294967295
165.33853 210.59148 -145.64661 4294967295
165.64055 213.96616 -150.13402 4294967295
165.9763 218.68616 -152.52032 4294967295
166.08328 221.45509 -149.88445 4294967295
161.89626 209.70111 5.473485 4294967295
161.61476 211.79094 23.668322 4294967295
167.36641 239.06662 -159.72638 4294967295
167.4286 241.64554 -155.50128 4294967295
167.52722 244.34755 -152.55647 4294967295
167.68309 247.26215 -151.58162 4294967295
167.88261 250.34732 -152.08363 4294967295
167.94029 252.85858 -147.78209 4294967295
168.24326 256.36542 -151.74004 4294967295
168.14345 258.19849 -142.20813 4294967295
168.08015 260.14948 -133.97849 4294967295
168.13437 262.57654 -129.7001 4294967295
168.24467 265.23334 -127.29636 4294967295
168.37003 267.94818 -125.39818 4294967295
152.81937 -38.198429 -112.59563 4294967295
151.17355 -18.621933 -3.199616 4294967295
150.57353 -10.208752 39.250362 4294967295
151.3978 -9.5796928 5.3914862 4294967295
151.46452 -6.548574 8.6598263 4294967295
151.64394 -4.344337 5.478621 4294967295
152.00964 -3.4073761 -8.171361 4294967295
151.68492 2.268424 17.130655 4294967295
152.12979 6.1607461 6.1701212 4294967295
153.31285 5.8111529 -44.678921 4294967295
154.6613 1.53412 -110.53606 4294967295
155.96002 -0.071539 -168.77495 4294967295
154.95776 10.918419 -103.74564 4294967295
155.03873 14.106503 -100.56761 4294967295
154.31544 22.890041 -51.816021 4294967295
155.32942 23.329597 -93.652641 4294967295
156.80299 22.207556 -158.07593 4294967295
156.47916 27.179131 -134.01454 4294967295
156.71552 29.782761 -138.48383 4294967295
156.73564 33.234993 -132.0533 4294967295
156.73262 40.170128 -117.24687 4294967295
156.78316 43.395752 -112.51357 4294967295
156.66533 48.78043 -96.088493 4294967295
158.41093 48.646133 -169.59282 4294967295
158.40285 52.132969 -161.76317 4294967295
159.45145 52.833206 -204.19797 4294967295
158.24336 59.317932 -139.58264 4294967295
158.48969 62.05838 -143.9601 4294967295
157.83231 68.378746 -102.70317 4294967295
158.38748 72.032516 -117.95515 4294967295
158.76816 74.523254 -128.41858 4294967295
158.78635 77.667984 -122.26924 4294967295
158.51814 81.209854 -103.25211 4294967295
159.20625 83.32328 -127.34057 4294967295
159.2982 86.320526 -124.538 4294967295
159.45859 92.291832 -117.94428 4294967295
159.28683 95.473167 -103.65745 4294967295
159.4153 98.34642 -102.57685 4294967295
159.46457 101.26498 -98.068459 4294967295
159.54834 104.14082 -95.077057 4294967295
159.75912 106.94814 -97.522881 4294967295
159.97342 109.76754 -100.06857 4294967295
160.10698 112.61549 -99.161156 4294967295
160.19974 115.46167 -96.532257 4294967295
160.32188 118.29509 -95.141113 4294967295
160.45175 121.12236 -94.067261 4294967295
160.57251 123.94176 -92.612259 4294967295
160.72882 126.76641 -92.607376 4294967295
160.93721 129.61531 -94.703842 4294967295
161.1125 132.45607 -95.416916 4294967295
161.36324 135.35109 -99.131714 4294967295
161.59042 138.24675 -101.8474 4294967295
162.04233 141.35233 -113.4315 4294967295
162.48238 144.50427 -124.39451 4294967295
162.68631 147.45773 -125.94315 4294967295
162.86765 150.3924 -126.57185 4294967295
163.01279 153.28452 -125.77173 4294967295
163.14131 156.15005 -124.32061 4294967295
163.21092 158.92302 -120.60727 4294967295
163.37144 161.81848 -120.38423 4294967295
163.52513 164.70166 -119.88674 4294967295
163.6958 167.61179 -120.01655 4294967295
164.04335 170.84348 -126.75159 4294967295
164.35368 174.03612 -132.00677 4294967295
164.57724 177.08064 -133.96895 4294967295
164.73256 179.99257 -133.37766 4294967295
164.87621 182.87651 -132.34814 4294967295
165.06157 185.84946 -132.83102 4294967295
165.31808 188.99028 -135.8662 4294967295
165.47813 191.91228 -135.37688 4294967295
165.64922 194.85963 -135.27141 4294967295
165.84897 197.88022 -136.16927 4294967295
166.16016 201.20068 -140.98582 4294967295
166.4417 204.46159 -144.68817 4294967295
166.67928 207.61542 -146.79393 4294967295
166.74188 210.27299 -142.76553 4294967295
167.06998 213.70021 -147.96017 4294967295
167.36963 217.06357 -152.10109 4294967295
167.6312 220.32637 -154.87659 4294967295
164.03685 213.45813 -20.79627 4294967295
162.87871 213.74878 28.804695 4294967295
168.42497 235.02843 -150.93596 4294967295
168.87854 239.00456 -159.90198 4294967295
168.94115 241.60478 -155.86444 4294967295
169.02562 244.269 -152.57365 4294967295
169.15945 247.1048 -150.91246 4294967295
169.32899 250.07034 -150.41353 4294967295
169.50706 253.06709 -150.18141 4294967295
169.70679 256.14883 -150.63503 4294967295
169.67371 259.42871 -140.68439 4294967295
169.64325 261.54761 -133.85387 4294967295
169.69945 264.00122 -129.81343 4294967295
169.80681 266.65601 -127.40858 4294967295
154.4014 -39.31456 -119.85849 4294967295
152.23576 -15.090835 13.406015 4294967295
152.66075 -11.187484 3.650296 4294967295
152.50616 -6.6464062 18.517656 4294967295
152.96455 -4.6083598 3.9349799 4294967295
153.02501 0.109798 10.523768 4294967295
153.11343 2.9198799 12.355355 4294967295
153.45927 5.852911 4.0984492 4294967295
154.19846 4.9425769 -27.3342 4294967295
155.53418 2.734534 -85.189674 4294967295
157.46834 -0.094842002 -168.19104 4294967295
157.37086 4.1860218 -155.94586 4294967295
156.61075 13.352853 -107.61642 4294967295
156.5397 18.962555 -93.769997 4294967295
156.62866 22.038782 -91.268761 4294967295
156.76665 26.604431 -87.762123 4294967295
157.94228 27.1318 -133.60789 4294967295
158.15428 29.845238 -136.66135 4294967295
158.25987 32.95676 -134.66393 4294967295
158.09995 38.665211 -116.87422 4294967295
158.28841 41.435047 -118.81417 4294967295
158.38791 44.489037 -116.62318 4294967295
157.8566 57.340244 -69.476189 4294967295
160.85277 53.141602 -197.00182 4294967295
159.39275 59.994049 -125.0414 4294967295
159.88985 62.157028 -140.33047 4294967295
159.31538 68.191017 -105.13021 4294967295
158.80383 72.282661 -76.398193 4294967295
159.99905 73.249046 -121.76879 4294967295
160.27965 75.948158 -127.28129 4294967295
160.24457 79.148415 -119.22346 4294967295
159.87286 82.763077 -96.948715 4294967295
160.89191 87.628586 -127.08258 4294967295
160.99054 90.603027 -124.7158 4294967295
161.00084 93.643654 -118.69235 4294967295
161.06046 96.612495 -114.75586 4294967295
161.00598 101.11397 -103.01547 4294967295
161.16507 103.96358 -103.21854 4294967295
161.37218 106.79541 -105.34058 4294967295
161.40013 111.12992 -97.118195 4294967295
161.61618 113.95848 -99.553421 4294967295
161.72321 116.80209 -97.624794 4294967295
161.80104 119.63313 -94.550438 4294967295
161.91824 122.45549 -93.033035 4294967295
162.10226 125.28925 -94.115395 4294967295
162.25145 128.1151 -93.817947 4294967295
162.40588 130.94196 -93.706703 4294967295
162.60039 133.79176 -95.113358 4294967295
162.77809 136.63725 -95.846275 4294967295
163.08777 139.58934 -101.54392 4294967295
163.6498 142.79092 -116.65704 4294967295
164.05785 145.91875 -125.82014 4294967295
164.25478 148.86794 -127.00887 4294967295
164.40688 151.77126 -126.50491 4294967295
164.55455 154.66664 -125.82852 4294967295
164.67162 157.51782 -124.01801 4294967295
164.80399 160.38211 -122.76858 4294967295
164.96764 163.28755 -122.64569 4294967295
165.12393 166.18069 -122.24207 4294967295
165.31064 169.12314 -122.91228 4294967295
165.72763 172.4762 -131.75609 4294967295
165.98727 175.57951 -134.91655 4294967295
166.19604 178.59912 -136.23158 4294967295
166.34332 181.5007 -135.36098 4294967295
166.57013 184.56543 -137.2543 4294967295
166.73622 187.50642 -137.00476 4294967295
166.90988 190.46347 -137.00214 4294967295
167.07362 193.39732 -136.64281 4294967295
167.22699 196.30452 -135.91687 4294967295
167.43011 199.33264 -136.86932 4294967295
167.67133 202.46301 -139.08012 4294967295
167.91188 205.60156 -141.22795 4294967295
168.07043 208.52663 -140.60037 4294967295
168.35379 211.79787 -144.1066 4294967295
168.78836 215.51857 -152.55515 4294967295
168.88777 218.29045 -149.88719 4294967295
166.68709 216.39984 -66.587616 4294967295
165.31348 214.32275 -16.727722 4294967295
164.78105 214.74318 5.5667639 4294967295
169.13757 231.16566 -128.82388 4294967295
170.3642 237.64146 -162.15932 4294967295
170.38676 240.13103 -156.99966 4294967295
170.43353 242.68359 -152.64169 4294967295
170.53221 245.40302 -149.94211 4294967295
170.6779 248.28192 -148.72299 4294967295
170.84486 251.23428 -148.16104 4294967295
171.07454 254.42024 -149.52975 4294967295
171.35732 257.81464 -152.50052 4294967295
171.30779 259.93201 -145.27534 4294967295
171.19916 261.78702 -136.31184 4294967295
171.21523 264.10538 -131.19817 4294967295
171.30258 266.69345 -128.27083 4294967295
155.34233 -37.514217 -96.546944 4294967295
154.44012 -25.244274 -40.004738 4294967295
153.62329 -15.895729 8.0608521 4294967295
154.13643 -12.458347 -5.4360762 4294967295
153.80492 -6.8716521 17.316559 4294967295
154.19125 -5.954525 4.1883988 4294967295
154.28764 -1.497808 8.5666494 4294967295
154.47079 2.412348 8.6692486 4294967295
154.47466 5.6815329 14.473581 4294967295
154.7668 7.3412242 6.358634 4294967295
156.39825 3.7214119 -62.445992 4294967295
157.89343 -0.36773399 -126.89661 4294967295
159.29146 -1.639851 -182.44142 4294967295
158.79425 4.473783 -152.24185 4294967295
158.14523 14.60979 -108.7875 4294967295
157.90857 19.098314 -91.447487 4294967295
158.26003 21.086161 -101.07476 4294967295
158.7979 22.404779 -119.00539 4294967295
159.37238 27.201029 -131.76637 4294967295
159.54018 30.076233 -132.6973 4294967295
159.74886 32.81995 -135.40642 4294967295
159.76672 36.194912 -129.68108 4294967295
159.75835 39.615688 -122.85838 4294967295
159.78514 42.890984 -117.62457 4294967295
161.10133 45.949173 -161.48651 4294967295
160.13065 53.478443 -110.35155 4294967295
161.29042 53.958557 -153.18378 4294967295
162.47795 54.629337 -196.67445 4294967295
161.35094 62.11105 -139.63533 4294967295
161.35805 65.349899 -133.58316 4294967295
161.31653 71.81794 -119.33906 4294967295
161.64906 74.430931 -126.71474 4294967295
161.77577 77.388191 -125.64384 4294967295
161.7319 80.570404 -117.68753 4294967295
163.31082 83.312332 -171.64497 4294967295
162.42157 89.015411 -126.8014 4294967295
162.50179 91.999832 -123.83437 4294967295
162.61382 94.94252 -122.12807 4294967295
162.61972 97.949272 -116.28258 4294967295
162.57019 100.95666 -108.33414 4294967295
162.75566 103.80815 -109.51601 4294967295
163.07765 106.61462 -115.90439 4294967295
162.91948 111.03114 -100.93088 4294967295
163.02151 115.31 -95.977264 4294967295
163.29529 119.56306 -97.490013 4294967295
163.3109 122.37583 -92.25042 4294967295
163.66032 125.25208 -99.406387 4294967295
163.86757 128.11311 -101.23384 4294967295
163.56561 130.74823 -84.373962 4294967295
163.72932 133.55595 -84.640022 4294967295
164.08574 136.49002 -91.866905 4294967295
164.37047 139.40761 -96.41478 4294967295
165.29016 142.87578 -123.65665 4294967295
165.54526 145.86853 -126.89603 4294967295
165.72504 148.80138 -127.41361 4294967295
165.88795 151.71829 -127.31165 4294967295
166.02399 154.60292 -126.24932 4294967295
166.16302 157.48616 -125.2851 4294967295
166.32224 160.39209 -125.01401 4294967295
166.50302 163.32776 -125.47267 4294967295
166.67809 166.25702 -125.71364 4294967295
167.04341 169.49301 -132.43799 4294967295
167.30542 172.58675 -135.56058 4294967295
167.49078 175.55989 -136.04164 4294967295
167.67363 178.53079 -136.41757 4294967295
167.86966 181.52876 -137.21056 4294967295
168.26329 186.23657 -141.66451 4294967295
168.36201 189.045 -139.16463 4294967295
168.52303 191.97893 -138.7218 4294967295
168.66147 194.85956 -137.52872 4294967295
168.79285 197.71828 -136.10269 4294967295
168.98999 200.72989 -136.80302 4294967295
169.25465 203.91331 -139.65605 4294967295
169.51341 207.09441 -142.27336 4294967295
